171.213790323	-42.940266129	13.0930779929
171.0032	-43.0047	-10.629031394
170.95125	-43.0844375	-1.0427322429
171.0411	-43.0337	-7.25438272238
171.0578	-43.0593	-4.69562499536
171.33835	-43.0728	-0.418115599391
170.840695652	-43.1282869565	14.5979091135
170.997142857	-43.1397142857	-8.11472570595
171.365230303	-43.116280303	1.20350281818
170.657192982	-43.2040877193	8.73614926753
170.769588235	-43.1592941176	20.2578032626
170.902360515	-43.1803648069	-12.1724041916
171.060235294	-43.2087058824	-16.6743333976
170.819906542	-43.2277850467	-14.2468885426
170.9693	-43.24523	-5.2173314821
170.4068	-43.3181	-2.85416734866
170.5167	-43.3331	-3.42204257956
170.532012987	-43.3294350649	-9.45446773785
170.762623476	-43.312820876	-26.3805807062
170.881509434	-43.2889716981	-12.1037857931
170.1805	-43.4015	-2.51347163423
170.20426	-43.38934	-1.94525972545
170.274285714	-43.3855306122	28.5762376913
170.417485714	-43.3560285714	4.08156749577
170.5167	-43.3745538462	-1.31841778003
170.5894	-43.37975	0.463935813153
170.755433333	-43.3807666667	-4.32018989326
170.930597015	-43.3642238806	-4.36610371427
170.0356	-43.4664	-4.80141868061
170.1779	-43.4532438095	-8.15555439354
170.42745	-43.41725	0.502464609505
170.509038889	-43.4188833333	-6.43285189581
170.601615385	-43.4390538462	11.6720252138
170.6902	-43.4566	-5.15929560522
170.722441901	-43.4269582746	-9.83707220393
170.820321053	-43.4119657895	2.99799123673
170.004	-43.4969	-4.48466521464
170.03946	-43.499435	1.70530259348
170.1204	-43.5099	-0.179730545144
170.26338257	-43.5128818316	-1.78970471652
170.338871795	-43.487774359	-17.5417255427
170.503826882	-43.5069709677	-12.8410028456
170.645541401	-43.5106496815	25.9546748981
170.992878788	-43.508	21.6745542472
169.8214	-43.5924	-3.10218313072
169.8323	-43.5738	-5.45102053992
169.984672897	-43.5512149533	0.359269545489
170.140671141	-43.5454496644	49.5185876888
170.194966667	-43.5808333333	1.276420094
170.314188889	-43.5855919753	0.72455636846
170.379528302	-43.5346509434	-9.86749570387
170.494974074	-43.5671666667	2.77894336717
170.56591133	-43.5680492611	-10.7782338627
169.903290476	-43.6125730159	-4.6946388485
169.94756	-43.636072	-5.29880246808
170.06702	-43.6443007143	-3.67839636986
170.14055	-43.601	-0.103890398734
170.214869565	-43.6155478261	3.53442198003
170.599383562	-43.6516849315	-3.81651187445
169.751193182	-43.6976931818	-14.7713603579
170.0208	-43.6588	0.490858721283
170.11564427	-43.6654131868	1.07266400947
169.497366667	-43.7466	-6.11301763349
170.1221	-43.739	0.305026377149
169.3321	-43.8128	-16.3253835282
169.5439	-43.822	-0.94934964789
169.1021	-43.9279	1.73108686491
169.147	-43.9445	4.14853274483
169.2919	-43.9479	-0.155648763182
169.350316667	-43.9561	-0.0101437784844
169.766868132	-43.9408901099	-25.8391952764
169.3707	-43.9762	0.248935672586
169.423	-43.9769	-0.412705446964
169.7396	-44.0078	-0.277127681929
169.8084	-44.0018	-0.726762697693
169.37372	-44.04684	0.150904068357
169.4072	-44.0895	1.00493352174
169.531621622	-44.044027027	-12.3895363487
169.8123	-44.0583	0.887149589843
169.2217	-44.2529	-11.5346707788
